0.33187679339594234 0.2449102953198405 0.4152557820899181
0.7984678684487914 0.2442194576259081 0.45150119966452174
0.7266576501690659 0.3018435544975401 0.2316075089286675
0.5019757915840722 0.2655850746846687 0.44016556323124234
0.20602196457847458 0.18658299754865101 0.4870308135284144
0.43406832442614873 0.4954571987634347 0.5909105686217319
0.5771226694037149 0.7392932481517865 0.5363828957528972
0.5843106734686796 0.19694160968623864 0.3914665282926011
0.513252603761008 0.25180267628201314 0.5771628141009887
0.2783680129213057 0.5484478193133138 0.4070890338451748
0.34490643827754003 0.678814385939423 0.622312261518903
0.523236231927634 0.5345256917593267 0.5789195508370133
0.25335778914245305 0.38146767792080594 0.6744422365962982
0.46019632514132786 0.5162749711904995 0.4323336015030062
0.47923893802491047 0.6169058463391601 0.32809853515172116
0.4985673119356625 0.6476513243214389 0.47216807776227215
0.4314757662296747 0.37757231983857553 0.36076369921510093
0.2889305350789698 0.45894863892354776 0.2273362313148065
0.5478980332173728 0.1094681643448246 0.5510560710124368
0.5707889658809832 0.41067886454324615 0.728180180194781
0.6245912169654443 0.20439185211012603 0.46846294624604917
0.5694191925130567 0.23521811892159555 0.6460492505359946
0.6134842688413858 0.20015581629289067 0.6028831213932483
0.6578324894407278 0.3111596471574299 0.672223368061289
0.4587222754474177 0.3714225067444639 0.35430095866296796
0.6763180709089034 0.26013913734238275 0.6309033392841744
0.49320149868209195 0.43788074118622083 0.6108678362621278
0.14982107662475994 0.4362632200983035 0.5100279951969188
0.2558397682884372 0.28103872912223216 0.18553110377942936
0.5788212817953249 0.3567608712388893 0.40790545473175327
0.5040704345445488 0.5249734063011005 0.48535612388033716
0.5369079105939847 0.5001727481120822 0.7166254150534013
0.4771163267244372 0.22700930561820531 0.37534822482554386
0.43988472620759356 0.34877102133776694 0.34919835450044273
0.1939721119859763 0.09397391501537963 0.5468401673353097
0.4282473081499761 0.6208220048191194 0.605133447276463
0.5832670942311169 0.3838833166707868 0.6638871707868224
0.5608732045514518 0.5315775501657619 0.34298517651531246
0.2781147221802089 0.43680795557349056 0.6576020742131292
0.39078492662241526 0.42772162153412263 0.4964340722615187
0.3385943722331357 0.35919030071587305 0.6857973685663736
0.3547071186105055 0.7046665017716367 0.424951581147896
0.44732689326570724 0.4052864194649202 0.14464600519899368
0.1909927240729283 0.4057202523122431 0.7006722204586786
0.2326123714299773 0.3641382841335624 0.2421482529221893
0.5612172939174674 0.4040647812257639 0.7566850396150714
0.4170650931149607 0.4376552780993058 0.30384317518114945
0.2741194701351281 0.5417775531156621 0.4403355152127539
0.2941270751600855 0.26182615018855643 0.745347029108666
0.5801022824140667 0.30125138108450744 0.6484062444040458
0.5084915144140862 0.6270754048787218 0.6158687949234075
0.5439989821325021 0.10676681380770951 0.40686203024858697
0.5438486171335661 0.517264119086288 0.7818237658172288
0.5372777173269591 0.40606622686817806 0.41615887247274885
0.18154212632169203 0.20867711389398536 0.7054725611479499
0.2993310997265525 0.37220789234028145 0.5594273834662957
0.40290602251156504 0.35569810245617794 0.3651411524134463
0.6623273449515844 0.23181306497277798 0.4629323828689719
0.3936514845119353 0.2157686778328548 0.5228187151176908
0.4523700858086117 0.5788517684114077 0.3137522398658929
0.49291540000896683 0.42969855267329526 0.4013454018014729
0.37059285435699674 0.5536019848269899 0.41280812324847216
0.5473593753693883 0.6866128257551203 0.5284460457153828
0.21629889453194712 0.46359013125924625 0.44313511368868536
0.46876206539134085 0.38277129378428854 0.3933232363686743
0.4160390996042571 0.6699422038474543 0.4557800813466766
0.9165853291627981 0.22388143789614068 0.6930960782990616
0.5000091727151298 0.24344859784047615 0.796573379197134
0.5498474321425749 0.771371808641473 0.48548037803167593
0.3037670360181405 0.4977474794180733 0.5316794594529103
0.25965629307430366 0.4140995697889683 0.5279898121691868
0.39105999552765436 0.23860010743106472 0.539244758253346
0.2243629491661241 0.3771499880566184 0.7183994491103645
0.23057799827259218 0.19704130668894818 0.3076296635455406
0.5910532099694313 0.10777174665192667 0.6289811771327318
0.5695818815893755 0.3231375699504644 0.3174584951100622
0.3547962008684829 0.4779901685263559 0.5084866572363277
0.6108752504045717 0.18209938283440266 0.3394871222085733
0.5056982256969519 0.0843528482622621 0.3162338672973398
0.2744128281963007 0.3666440286308239 0.8069080466090304
0.4025814321994908 0.5957878081774125 0.28244200681697057
0.42820166967163137 0.33335343874313683 0.5097620990068094
0.3406313340095145 0.24263546196767494 0.6433338454859738
0.6758540328171273 0.21854153896966969 0.5728483740791248
0.20480295012976565 0.24633146825023072 0.4824628167813349
0.4993364131484086 0.49279647828965484 0.7567055797440428
0.6357566059770009 0.9521013927845026 0.6240131108149694
0.46316524602974934 0.4295476812054258 0.5613727869143554
0.15258628445324574 0.3213836029664201 0.5739401733797351
0.45897055777350504 0.30477805396349394 0.14951750477342754
0.6338232733718574 0.5182594712265123 0.22544822767921494
0.1856911760995916 0.31427546975570403 0.49105202018290023
0.2168045193505996 0.17506353047822282 0.5254656237615956
0.1551187979439321 0.39467154811554195 0.24340319852801673
0.29170193308331 0.35315759801120683 0.3285041886303251
0.4770348977747889 0.5846649344191104 0.5881331985045503
0.4787599872367579 0.24311114181063176 0.5788982087988972
0.21886607300741812 0.2965390094767034 0.481065775864627
0.1675886821053143 0.3919231030018982 0.3010498020525261
0.48156526238531944 0.4183807165127426 0.4308930737216349
0.5383982235680941 0.3087748597350204 0.3075393854581368
0.4093379528702409 0.36749538532238063 0.4799109783354031
0.4665462638070959 0.3342861329385622 0.46801045845967415
0.4699372984144614 0.5915364235377745 0.35609457618536144
0.4916692613351505 0.32013817563525515 0.6540479566091633
0.677968484340338 0.25662037056654896 0.33824987487825686
0.5812396428158235 0.2919510050085332 0.4815534509318744
0.5014269480830909 0.3531114741668008 0.4172741663044429
0.5012280183408608 0.36586008506460876 0.5772433426614219
0.6530808823177284 0.28347963328599146 0.6582385649767762
0.5420606411123491 0.07528678704881733 0.36031011407936986
0.4275562031529955 0.4929300313337135 0.16436261568446842
0.4119170052284871 0.4218140975503848 0.6170150185315013
0.46929374522290773 0.20693914464566476 0.2631076959648309
0.26995246884725077 0.4508315035314194 0.4919186738739208
0.3421012194033044 0.3707629716443407 0.7782380501792424
0.1607652512610107 0.45105318216991425 0.553329131723335
0.30606888104676155 0.11647341753626965 0.6080971346525712
0.12623830739793165 0.41722671297908637 0.27932761679597073
0.39095577547599664 0.48909293828171263 0.365274072371338
0.49075536628173744 0.4897264465060844 0.6070031547218304
0.45624040885008554 0.5935945163235472 0.3872751250501341
0.4245462582809571 0.3600757877861179 0.5304092881247683
0.525600147537777 0.43970526738214183 0.3793303297812247
0.3700104713577497 0.3085627277006948 0.14876399154896938
0.38921211548646445 0.3186921813306896 0.5103128769377452
0.3657541627145912 0.45068648459344857 0.38632315338092577
0.6371771387869335 0.25873262035675687 0.6616520671087769
0.42767764314839357 0.4706877446881552 0.42945838088443533
0.40957610581765735 0.4383821313618456 0.5413094562381269
0.29071758257380875 0.3609189495289583 0.6018014374027274
0.5164871957422351 0.5530974010833675 0.41399681990407605
0.50327567223917 0.5325695399150108 0.27681610769744486
0.5823941950241578 0.35784981813460304 0.3174777831352812
0.4780031538270687 0.33999421719399114 0.5028976221967303
0.7075101138047513 0.23067423440425575 0.5133477777147692
0.5067474042299465 0.26253939561565265 0.5515896289996323
0.4686638666925597 0.42877171452491397 0.5876944275851254
0.3568605682415989 0.11168763782883774 0.42877533718464694
0.6811267964727411 0.4370929568972597 0.1552280826849251
0.2548031389301292 0.5494525974031346 0.46923402937021225
0.3677903366504067 0.49432031669344845 0.167567916879039
0.16723229679907878 0.2710008349196644 0.41890329397208725
0.6395411950828913 0.3130572176482544 0.2806038622341699
0.4282730255169348 0.3644364958553481 0.6134500962569531
0.5077111020618245 0.5813729988997413 0.4776622747354911
0.5186175728996893 0.47919336988947314 0.3534729663681162
0.2890483735175072 0.21933971994034993 0.4815708133200024
0.24866676133133792 0.5871159345486595 0.5043858978643831
0.24853536078024682 0.2683022207216486 0.3609800739983751
0.5735531607716019 0.5806544883060234 0.2179047668343929
0.4708838888512509 0.5430615362736793 0.6410528923008613
0.12995004938888094 0.2671736778033389 0.5789288994094116
0.291601370862839 0.5429554451006837 0.5267957096611464
0.40629227380122485 0.18003428389504936 0.7190291588177347
0.4406452174484694 0.3953931115914425 0.5809508289064713
0.3978289528244392 0.4397626249888654 0.22732643958209137
0.24257422143246096 0.5964654354733283 0.5979252758999364
0.5547757969233803 0.416250705138407 0.3167279699477542
0.4942686849993903 0.1656636640318296 0.5358525559537171
0.7354132037205051 0.5058069899004298 0.7671789070950776
0.564843695893115 0.3338166186514422 0.5171564997136284
0.4861614679572104 0.2972644928111209 0.3896784186198599
0.3029843726928407 0.3371144752850448 0.3529535684081877
0.5140366176701305 0.3642554050744439 0.46913353925122137
0.5843244044042112 0.4278240267387685 0.7584572025506968
0.5448984146841461 0.596918893991826 0.7010620467831093
0.31399179967145824 0.39241835224170385 0.48196526556988345
0.3895011404245389 0.4703553463133555 0.6976269634471072
0.1561436659681167 0.14411391737856366 0.378192005681636
0.4309006988928011 0.07366024800016667 0.5582979577444978
0.16499252235197953 0.24750649024462898 0.34067602989289947
0.31623725782547835 0.7002469131717369 0.4604996543096294
0.49344308436339135 0.3232309967622623 0.5094048308970855
0.44696893227834517 0.35460466416582437 0.6930574459742976
0.419050620157422 0.35599040889088435 0.5572993487276592
0.37699917989736575 0.6373854241358524 0.2720887126031851
0.5488388836729156 0.32243453303780983 0.5145109891350089
0.5760756011579434 0.269911947815422 0.4193796913126999
0.35432884259147585 0.1906798810263958 0.7793305880803808
0.2958170494426623 0.20792939692509996 0.19912188810222825
0.6104546560924283 0.44951299607443246 0.27284968217583155
0.5847185497831585 0.2717321162682273 0.49921013971598316
0.26235959914424545 0.2977546298801286 0.7422037422212914
0.4560217268194474 0.38016138199255 0.5985044090568598
0.36643930263302127 0.331148067253492 0.5330511144936108
0.5853706285350935 0.25219731406131257 0.5140199921239579
0.759878298103889 0.6179424475603051 0.11679443442864616
0.3328303055748235 0.13865264879960199 0.42943276199754704
0.7200143253049623 0.22187396386655922 0.372835041565821
0.3621006646509992 0.13666415328644685 0.45687523952111697
0.2925128461202362 0.5487623365210431 0.6905615670698041
0.25247265026960003 0.4600156986236127 0.7319855345269467
0.26357636261991646 0.24659812414374044 0.5496115583053592
0.4884703472765751 0.3590982535043472 0.7124413907819244
0.6632510036005497 0.8349421853613381 0.4054453592642726
0.19249907522993323 0.38550187179944345 0.5654068541757595
0.7341438237500717 0.25098262921855635 0.32966580326656597
0.15881973526429918 0.2569302767966959 0.49587099267500173
0.5047441507748112 0.6074753666594506 0.5388824500743044
0.5621528264492079 0.33666795961151114 0.42477101090450686
0.24035087908853883 0.5046002151176149 0.3918083807541603
0.4138880134948536 0.48689532737333074 0.4679507320555426
0.14560162766509807 0.4130404940088974 0.5456333608981864
0.5854148320181265 0.13361588559843718 0.4063478446980995
0.5230983035547327 0.2689550908312922 0.34397945944334374
0.535489656894253 0.5678800756297678 0.25757556394091785
0.3671361476112487 0.4730773635966754 0.45579053078557624
0.45193773016234495 0.24930850671017035 0.5684203302617512
0.45581171103500545 0.4118237797732616 0.5867560180284708
0.16385566841915625 0.4879340810874433 0.48299287125209683
0.4460912216165174 0.4306903735995663 0.45031879518198803
0.4663002887283725 0.5594655726307429 0.48414521337420807
0.5413242634201424 0.6744713585599769 0.4752415739340339
0.21028226869877548 0.34271171846265364 0.31883970623473784
0.5533404358285601 0.28984598471063705 0.5430962927042435
0.42997177859435964 0.4575549911728374 0.6081113790913271
0.21188822541271027 0.2851872442940352 0.5718990121317824
0.26940390671789916 0.4794201554230479 0.6422793912349214
0.43564130438507737 0.42128247399314384 0.42970738774246925
0.4101326026269678 0.44235394515016857 0.5163735972224434
0.4916416869154354 0.36357498868224825 0.39622274287603754
0.34169615680512294 0.2863214621264023 0.3100061705361147
0.3055024799560841 0.3189363521138373 0.5566259209033173
0.45916549203859264 0.23029700649454685 0.438126969499411
0.44662864142933106 0.3565427097457662 0.7479331438948189
0.5441131346026897 0.3873583407096313 0.16375125140735763
0.218065007977533 0.6064124853280873 0.3195165316215089
0.4384550769568572 0.7097412923485616 0.41681489042750025
0.45801884637305423 0.16686882092777358 0.4755384878291773
0.5893109849752108 0.2758274064791187 0.19893632351241117
0.3734635202723111 0.3397904584111657 0.3539762558022418
0.45218685660332153 0.4767928618988818 0.4576844361911017
0.5165797670084213 0.6063078432189851 0.32372119450202763
0.5259662683024016 0.5622245902833743 0.7621177067678695
0.23338597458879928 0.07288015922527906 0.41177910499274883
0.8773433142828421 0.3122002216537371 0.7441517624255076
0.49909842902396995 0.24505789584251417 0.32659371747009835
0.33804817362547396 0.16641166237234475 0.3816441964127267
0.2765737623127453 0.5953577035041837 0.6331527507095925
0.6114668905304373 0.5583006940835971 0.19723301221458447
0.09874481016359812 0.40478394600852086 0.46369176620905567
0.5446030307472395 0.6217390230976226 0.35368438901070687
0.1764841899053889 0.44602604187848677 0.6763192245325853
0.5442439442733584 0.3176776466796074 0.40797932181885216
0.34322828160341257 0.5969534745651217 0.47688269242953707
0.37172453105183273 0.45970880658704943 0.6669922192697146
0.18155377510716347 0.4234621826315832 0.5381815111388641
0.3260137401982858 0.32963960932640934 0.40281486513781817
0.3613918332413446 0.304841230247592 0.34223624964841914
0.43050807292065435 0.5666635935257266 0.41743053155338317
0.4926525426324587 0.5162026164759105 0.6855463147297334
0.6059691702568422 0.1343881241048549 0.3163177863859114
0.8353407482748726 0.27428388964696976 0.6450140139672539
0.4855229231806662 0.5722995516810157 0.4199382984092334
0.3829340391349334 0.21696281902949424 0.6134775440594348
0.48018997413344994 0.635672940122896 0.5644042778189415
0.32813989678129385 0.418919296983529 0.47853461999205416
0.32191212967716126 0.28226935190924074 0.6853084009482021
0.6382283994699882 0.7706833485378121 0.21397383634387193
0.4166907000244215 0.4961311119538379 0.2109551408141485
0.22579906996434457 0.23373163260165064 0.5535867133817854
0.05376592319334486 0.31648485167035906 0.5111227313139145
0.27214018954284713 0.6866862637504838 0.47676600058039087
0.4481882843730098 0.4437234934207913 0.4068318601755875
0.20718183471061102 0.3277545741615116 0.40681433072305434
0.5382916681319095 0.23409417994657758 0.3180323666175094
0.38700830033364664 0.5848795646982802 0.6947846316549082
0.2712121696336209 0.31053090543441253 0.44876293316958404
0.4748966984860277 0.4863060929748994 0.5283984868756652
0.31963549554656534 0.5471651023276305 0.2722165960089044
0.5503729780726133 0.5851916058356679 0.6632492309592821
0.5805031244378019 0.6563172047344783 0.6690661110724975
0.6013809837763989 0.16982213975932567 0.5333382014845853
0.40324794531603164 0.5611834027046645 0.2548168276599162
0.4199008689481866 0.19170478422203413 0.4044053675149892
0.32787360667090276 0.5239827530670929 0.5352422433030725
0.3715730405663778 0.5361127825054871 0.5505031265199519
0.2061920255914927 0.5920196511746992 0.4624328937104206
0.4890171649018223 0.5042668741478554 0.28415173338795546
0.4656626443410435 0.34779957523463484 0.43942906243894764
0.508188983637784 0.6569442132742029 0.5090128468039692
0.46253531122507535 0.4377511132763971 0.4255429117649689
0.4194608599935908 0.2935951139568888 0.5371522537172555
0.6118028201191904 0.37069689855138577 0.6469142854059023
0.46524244394918174 0.6231672373530472 0.5359292367571135
0.3839712875108268 0.32743816648814483 0.6054565111474459
0.6402177250294511 0.2748863485119991 0.5890628433349383
0.2996759487959684 0.5250708171593182 0.7197361472432144
0.5257964886610133 0.40152874355541496 0.36573114651527794
0.5080915727795662 0.5015783822942197 0.5591162919581585
0.3496277979503417 0.08676034833785258 0.3941463257628777
0.15098398557049764 0.4244364952081933 0.4317281812015738
0.5829218793785823 0.30124006027284195 0.3441655023649314
0.3933863198880633 0.28821933838905256 0.5215278594576171
0.44093930707587925 0.4565138598684535 0.27153999571943715
0.558262694845 0.2970479149127015 0.17878094210751147
0.6272886986426504 0.27913552790148893 0.6466386678259853
0.3945541809744845 0.5554518907439139 0.4607707945634882
0.45455786277853405 0.32811921244936204 0.33301108684693487
0.4868886447971244 0.36030967795334373 0.5568467624612137
0.4170127579918281 0.36129423597442195 0.4325654552430618
0.4989157625619392 0.5277932705686643 0.5485543501294807
0.6159998156227986 0.4295454161638063 0.24779729485826157
0.21646923691659498 0.25103778860942255 0.42398845309356825
0.5291249743550863 0.5231114717470048 0.6511146010947416
0.5906786480559143 0.10211654267716298 0.3569908573747524
0.37503453062983155 0.4177090050553422 0.5687862470319444
0.5133672908372923 0.09182824530984872 0.5274007219737157
0.3902620255856964 0.5336745566479284 0.480356476674638
0.27709958961441344 0.24452302947724042 0.372107618525731
0.5265470193461961 0.38273031904070687 0.6796174205707163
0.42521755471520367 0.3639582168419615 0.717320276361639
0.508548238934643 0.47898580203820995 0.5110279372118532
0.6514161470703398 0.3128042891731309 0.5952147526476915
0.23643289169298617 0.42062201740093325 0.5075355912320526
0.5971893624709188 0.3051799146404575 0.5852197500329331
0.5246294154151553 0.5713005135724417 0.5870856730298805
0.09497414895338013 0.3934808888928206 0.3207223216036198
0.17545251268776443 0.5597291334363255 0.5032290832522884
0.3645344166996449 0.4542435988052713 0.43955012961693635
0.37287843610541854 0.3357548348129345 0.7839837995444582
0.5902691116488199 0.3328731830940513 0.2589887670198956
0.6272240957164609 0.10060062488474672 0.4300045935606786
0.5753774618702191 0.16932474506084325 0.719714594176376
0.46950713746690664 0.5738049461744795 0.4499686703945144
0.5923335352962619 0.354795209033488 0.6279127527802626
0.6056406970162773 0.28218989431957336 0.5254635521629715
0.25321535882347596 0.6302799182327291 0.5042357263084426
0.205072222779432 0.37490681604709003 0.3234128111958267
0.3232938894765149 0.5842564109498831 0.4538140533581566
0.45717928970421995 0.40245392161118076 0.24699988765956313
0.4344311812798684 0.38043893400242157 0.2619692241451366
0.5446133570860511 0.6617009132237007 0.3233980251166836
0.5708935235785966 0.2239773082446857 0.5437057858600165
0.5487176687748212 0.274779258469718 0.42878263174414805
0.4766941004568413 0.42061159258205116 0.4911759630119182
0.32269710024982495 0.360027356694348 0.5431546034573629
0.3992003018734923 0.3370311558697591 0.270201327985179
0.26040929982982824 0.1141939556207948 0.4054769924697468
0.612887282654555 0.2156189459200858 0.3021779897391533
0.20514830566811512 0.3669232864562008 0.4888641725952935
0.3705801926336582 0.5549426080940747 0.6398760976651956
0.3367382761403573 0.575002210596209 0.34392899544154887
0.581138574126419 0.07064710956013072 0.4419270692163911
0.5141657672481837 0.5039420728070588 0.29466304590900594
0.3204410625225264 0.3426063694073316 0.3223096796528284
0.3974188818112483 0.670347013211169 0.5515923442358593
0.73683120418577 0.17584809306202337 0.40731136667270884
0.27522002712771426 0.4600205944899703 0.2802308619331979
0.3010603534886417 0.5114579451635843 0.5761053069677536
0.5814993488300785 0.3597245339949799 0.34156364483609425
0.436008550636221 0.5473348819690188 0.7279012846353774
0.07432068348950516 0.32321180897568635 0.36390811158899455
0.5512056129993559 0.4107626570145843 0.6751152916032307
0.6312384810323644 0.1702712229489808 0.5901760057765371
0.547166298157057 0.5345788428601856 0.24505631312709686
0.4476988102859047 0.39831768127672534 0.4495423325839788
0.37998875346341054 0.09641176102123816 0.3478791998887074
0.4494762911453323 0.5404395184675709 0.3225284742321184
0.44703314128425303 0.3301403681744399 0.483359083022858
0.4729232141493195 0.10599229619109087 0.617856812104792
0.5868368560976966 0.2836013739973189 0.7299480381444714
0.5890360848929497 0.27710156273296693 0.5403110547328652
0.3437075137631949 0.20572385837104998 0.6115452665979028
0.46174882124561106 0.39403851118865 0.6528070092419157
0.3607566649243574 0.4770433107865182 0.7242721392863399
0.5234798997589934 0.429066760815865 0.45664420175878767
0.4398821938629258 0.4920749992252432 0.5653601394509311
0.265960536987401 0.5298521371264188 0.32734417781237374
0.3469400235943619 0.23975265486653705 0.3729144446397351
0.41855720686750053 0.28952480778814615 0.3610419194825932
0.48662550604898647 0.5702299789327494 0.645019472576871
0.3478657362562242 0.14673632910495368 0.6228297180145862
0.3290203648850931 0.2718391957590723 0.2515160711399545
0.24969967658413325 0.3725653538930008 0.17714628548734265
0.4872247713460182 0.2143608630205867 0.18712124740777245
0.3209711666729667 0.4564068261004983 0.3666319577879078
0.4593560931805822 0.3603663286138476 0.329026428443714
0.14925968394909195 0.28616023266541285 0.3370705760350865
0.15429280338765156 0.4500260209669472 0.33771434025536246
0.510600338504702 0.33472802708307736 0.6350379969032126
0.6441914240076934 0.258641575531662 0.45944634313082294
0.6841676922240514 0.31276499122860524 0.7124344690398327
0.5248417947212871 0.246824586099941 0.6655921421772646
0.6516053976285066 0.8770772492697547 0.5063903154946365
0.6446401554828113 0.4366019211976095 0.7678934503488161
0.6740197992999801 0.29010132418891293 0.6419985542112726
0.4854248933048629 0.0850727094398027 0.40756356709874036
0.2391254493666717 0.6467654257451856 0.6032937059096635
0.4633294545128688 0.521840895947145 0.341279937821822
0.2834179021089981 0.39575920421890426 0.5713499294649157
0.2436158592057784 0.5190007025793321 0.42863064885834107
0.26342560370069884 0.2765655462611566 0.5218757051348899
0.4939666606920216 0.6152474700906038 0.4671810856852639
0.3696368098334479 0.4282040331933211 0.24494348310356895
0.5279084641138821 0.41752361632279367 0.6673603096357476
0.47248022265544837 0.49050539572587154 0.6023713837759396
0.5067395258243136 0.6517497272059843 0.5586681935692075
0.5487483945567894 0.3392409431354183 0.48611697299075457
0.18988800278022197 0.1555294879747084 0.6624496290618717
0.5688056616743968 0.2966289217809886 0.45971067419124184
0.23470813987697287 0.3174153485292134 0.670222717293729
0.630795602087145 0.24773014551882283 0.474445893653713
0.4176398790802046 0.38479942752578405 0.6006726306985148
0.46098641667765294 0.5082984934760808 0.6789178744248433
0.5541048099979264 0.3463718533795623 0.254223035041083
0.6333868378369593 0.29551428125904733 0.3885349805909006
0.6263528566021173 0.24251367025773965 0.6296035149034026
0.507406601684114 0.3981065611086366 0.6009682045612715
0.41617179446484504 0.4040492565460927 0.4425067123593935
0.517650892528536 0.3254783867083779 0.5592563587554458
0.5629226873653542 0.49969946696226897 0.7488546078450721
0.4796223912819275 0.391416676274101 0.45442903326070966
0.499405574295 0.45844207150993566 0.42530728412792934
0.558323555528514 0.36980746172688833 0.5575506769016385
0.49346272410314757 0.2924216342307361 0.525544576640902
0.5133448936555645 0.4578157804678669 0.24669341768044445
0.58554133670286 0.3443309559175124 0.5598152964636443
0.3753134824635611 0.6974836186703335 0.5899683464794941
0.5871892459267898 0.125657612628463 0.5422879190462758
0.5223076492751483 0.589705847851814 0.2296069285040148
0.36114580188829526 0.21706120061983472 0.5579365358860898
0.43523950569780095 0.48436358765462617 0.7729521183313566
0.4506824750477248 0.5420447436152683 0.5316747499952574
0.2128343093805662 0.5240143792382762 0.3974332528672374
0.4515291222816287 0.5296018148560158 0.4652961542761546
0.37303043305980704 0.36239979083058144 0.505914331418605
0.36672872149137736 0.4291287188487349 0.6851898731491719
0.40036270435029647 0.0315672632189785 0.5654527599571525
0.6117371198436448 0.5332179749043405 0.7797799104359212
0.2810189275937889 0.37710169765066337 0.47641438979899764
0.6419085152897541 0.2823049225589586 0.29552922033401413
0.3138933758753733 0.46231108617333116 0.46618498966879346
0.4933680144125753 0.544396124119306 0.6308012435883213
0.559383369909113 0.5873218141701443 0.6136463529687005
0.1679176618148126 0.250896413434057 0.6163577766101606
0.4170037540996762 0.32926709790864406 0.643786769398375
0.2983594672147157 0.13620461714074666 0.5530049282972516
0.45435673833759205 0.34431625424985823 0.2495403639673713
0.08317674298708944 0.27697076009658905 0.36621299543121694
0.5478925746077558 0.46042181636540574 0.614063542684124
0.5507222446766162 0.19856632685358672 0.6408626710105719
0.4687111934006829 0.21205690770474253 0.6233611164745233
0.5258909169799558 0.42559731496958014 0.6082619551189853
0.6864107024448928 0.17964243169488442 0.4503622073073124
0.43900892887284804 0.5782476353851813 0.7046989861262909
0.5322835959962822 0.3498639672277684 0.47786209255692746
0.5262248488301376 0.6951885828351522 0.4186395362063639
0.4975880823898226 0.3195870521447865 0.5693855263975576
0.5053370007986847 0.40897869053909114 0.4661724088397985
0.4751909006620895 0.37887752545176623 0.5789755648942049
0.4334294982779748 0.34828177938225635 0.48887671242756275
0.6384040035041123 0.2418781150547615 0.5083640091014944
0.4472496848905051 0.29061271360882984 0.4229778857824654
0.28193788733653735 0.2773753900858898 0.7140355158188284
0.36115975792113064 0.45497941375421846 0.5738111926246598
0.3725709531884328 0.5194364487537373 0.600480059955117
0.518288649464517 0.31963597739548116 0.2578266037089767
0.21227640571310702 0.49163659408893695 0.6886974237484149
0.462081515060622 0.5560635082554914 0.5160596726537091
0.5350239024355354 0.40128903602974414 0.5179373692947885
0.6038744710220396 0.7257349622522232 0.351965799233385
0.488136696798023 0.4244209494256499 0.674447948440382
0.5859954142389431 0.29860754730494404 0.5503594511315132
0.14689728774574964 0.3714759743884063 0.33588135884196757
0.488024035597473 0.0421239609839069 0.5640606878875687
0.5988214023349311 0.25114659853579047 0.759557590720305
0.5094597704663661 0.5633856703135187 0.3822479847587066
0.4386571017870144 0.25730787752381423 0.5931489432449731
0.380634782725306 0.2931363674103246 0.7769473703764374
0.30852733752449896 0.4003577662781943 0.6306550710266686
0.4173064536989563 0.21189053969436483 0.5491678071080878
0.4701591880816786 0.3999095553405914 0.567077765530421
0.36443194115209165 0.22878265031467565 0.5198539444608081
0.3412698787860587 0.5071475006188628 0.7440560116599052
0.6275813532747486 0.287372594433651 0.5225899670169986
0.2558199034513771 0.5374459212872207 0.6440630904073664
0.6237292349777193 0.4482877070383802 0.7154097629956678
0.20215884465072226 0.3586381651668237 0.41998584318036963
0.5215112550143168 0.3351692459356811 0.7209631807833711
0.4480480487527447 0.4661807198543121 0.5901857693720892
0.4168521510655694 0.4402123131275245 0.5933197569271008
0.5149819137974232 0.6393788014467836 0.541065623100935
0.3920053479292729 0.5072947423927086 0.4819650193697074
0.4314977132167948 0.11106593314433381 0.5759800895582262
0.7799947939495578 0.534133614461858 0.9402895383850244
0.5140314967064692 0.3260902117315324 0.5181411192847506
0.5947154586907084 0.24312514708350233 0.7079048782012839
0.3919877903395768 0.44417678311631115 0.8228451045407872
0.3883283271974342 0.18840245905523662 0.3509074198480977
0.6088424247911501 0.2780794557635656 0.5688995905586965
0.47873792770098583 0.5327395868594474 0.5763281040584768
0.3186181682820579 0.3513555498913571 0.6578387780966525
0.564824815856759 0.4248756881850629 0.25017131170991236
0.5629878530348033 0.4592087529266659 0.2650673790231001
0.5178207847185763 0.401839237148839 0.702027784559303
0.553330644095845 0.3197261209520745 0.48574023792104093
0.08094878614843948 0.25519459721001236 0.5792183323363492
0.597349434791081 0.3007563683727281 0.24203539476149843
0.7147229629846225 0.7070807266291782 0.1896848524635457
0.4427032258227531 0.3932042865121994 0.6802481854216981
0.33317560483884706 0.40429262893724094 0.5015149681631659
0.3084461336721544 0.14641562172136988 0.3674214865809734
0.18261927319468332 0.4545025029103815 0.4993851563868301
0.28481243618034224 0.31860444086367157 0.21932949208160868
0.2583888827052785 0.6700645160949046 0.565091134104313
0.5128953743398833 0.19503778593076465 0.48999528594236064
0.381109906859294 0.35751784181724794 0.3138989892393866
0.42026698971281135 0.26302502898001173 0.1568564928549136
0.4661920169252465 0.35798205928343796 0.3918399647195992
0.4666289307919151 0.088744665482306 0.6805929500796251
0.5238721318108586 0.6677390358493849 0.49517876482936113
0.5062921449330184 0.4961947722850678 0.2511047339544297
0.2038010983048942 0.3904703039003246 0.38468620358197453
0.4975857751424587 0.17984674970382405 0.5877602544779043
0.28904944272970023 0.4296646614604924 0.5353581684145275
0.5544090008668442 0.3637925100549137 0.6949480382288828
0.3141020410759925 0.6881156879039163 0.5779183461668903
0.5222324667756802 0.3842769837179636 0.35594888195547925
0.5331175815068475 0.37644007336618934 0.7657509179369568
0.5453169549833925 0.3811194031517978 0.24947663329323397
0.28922535627261703 0.49331311880761186 0.6935068808784899
0.3888982172963205 0.14381411590706994 0.48125843453665906
0.19904355424050724 0.32056682860673175 0.5225161351013533
0.3156058598883297 0.4506057731414561 0.6580200939748604
0.4654552734499211 0.6497962202549881 0.4693472023154139
0.4013190302454751 0.3306487187807555 0.5792440286004358
0.3463703023184534 0.3340774325664893 0.7040706410713249
0.3442493792477586 0.059795928247510795 0.3405475696753392
0.3544183750440608 0.3998257065949273 0.7501489454790639
0.38527572638632646 0.322277591856315 0.6479865223439546
0.25737622620982487 0.24120783859267278 0.7192917770283576
0.5563262952890923 0.10124067499951005 0.32264171224450944
0.6645116047761349 0.40331885800101813 0.18959968127122176
0.24382491832667924 0.3875939120723449 0.3818479938841513
0.287331275009823 0.2502952910842689 0.28071331579814085
0.5416100525844748 0.48010619573069313 0.6631371465705731
0.49141090590471825 0.478821635760835 0.45987238901829264
0.49125176211093424 0.34460425569862946 0.38507624796941836
0.5285129066489012 0.3300911105535076 0.5978254944857379
0.4158991453556217 0.08784296788904243 0.6074634365023494
0.45703939172991054 0.45346335527598736 0.34729898345100946
0.7638051205686157 0.5454928263205647 0.7863283849236375
0.21092261425375006 0.5010424818882067 0.29502043008452705
0.2762313330393451 0.3506736738838321 0.39242762343690396
0.7098215817431096 0.26400409322001916 0.6597338722973136
0.41433905221733547 0.35012053946549715 0.7826077234520253
0.531795388081511 0.430207708705901 0.4061382931768466
0.4244311772843912 0.5073938274121235 0.45426855646882974
0.48259919057598183 0.1477777699181303 0.6143107417294369
0.5808616200312606 0.1882291622684764 0.30328925292225123
0.5746652258638446 0.6810424834638877 0.635076671433721
0.3612705057945984 0.5663628916650176 0.26632940112541564
0.5801950506403938 0.17783933194856852 0.6514748271237232
0.36929730682499706 0.5683289759278636 0.5040261879764849
0.260239407639788 0.47289606178704896 0.33316335110437156
0.38534522517887354 0.2829723712361684 0.35018775563069793
0.6729693827318146 0.25876972624042954 0.4964767128130771
0.5410446362945014 0.6709950120744725 0.38163245618147557
0.5652180045721653 0.29240100617313036 0.36346963610978084
0.2586411042341823 0.3464014501578661 0.6020439023703698
0.5405602268967318 0.307213129228175 0.6132953699977561
0.3717881773144811 0.2938679019933543 0.265826688503131
0.3193779279566964 0.3674441862372031 0.45231769089400764
0.4335067066531769 0.19157757610822623 0.47796283591038513
0.7164785812684188 0.2930832268609018 0.6809532886572585
0.46221449129283965 0.13688559275905648 0.45259208802448075
0.46852059225869336 0.16283752517692243 0.27854996188568043
0.18179592353172236 0.48440354242605 0.6057003196646203
0.5086473380226393 0.45150588098501165 0.29391210723496
0.4318060402486698 0.2037686772588567 0.6922804382187557
0.7150536590610621 0.33366757961631144 0.7093837393500627
0.29716043015171867 0.4710772192980488 0.41082395382412434
0.25918229442683455 0.6140842797732363 0.6790260196107359
0.6274640494423077 0.5242756750022393 0.24415341970440688
0.809219289450085 0.47261305820185107 0.7975622035155483
0.17874517977337095 0.21523253826095645 0.6251060989107153
0.5580349526478842 0.35200330958877546 0.4686853089693189
0.426243829597537 0.10320169457302054 0.7080124465753356
0.5712834765202607 0.3274304973526616 0.40135799318190396
0.42461012964090933 0.413821159595626 0.5295180610732767
0.4305105489909961 0.6008781586054623 0.6425003664443419
0.6225159323730942 0.30876563222936043 0.4432116186348131
0.5087221266018256 0.32857720984396205 0.49162425649252656
0.7329995978805491 0.6914772910388105 0.8088529154509935
0.4776423791234092 0.6406448049576601 0.42264564919635284
0.33537227315226936 0.5666864409020619 0.7018788123499343
0.5198537510178127 0.5129932353927086 0.5631270616486197
0.49441207198190856 0.3080123279727972 0.7281578111502163
0.6427574697710219 0.3731196630378899 0.6703209019239286
0.5230109095265338 0.11368332238713287 0.2824531772706715
0.4239298855888369 0.24218607630351785 0.6830573294301686
0.40036546179226795 0.3268677400245893 0.4822679845134631
0.459476745335417 0.1726526258059124 0.367976140406109
0.1639137435235357 0.4360047239820564 0.3960992207305793
0.5252680164660254 0.3142716013354382 0.33445891270495276
0.39931183758752337 0.1587185962319871 0.44706436650086395
0.571163781028967 0.27198263198162576 0.6566819186409543
0.29303872969623035 0.5384852377445928 0.5909596187310872
0.43656307784412324 0.49828025659899616 0.6578866956851981
0.27679638354619984 0.43216155330285305 0.4150982843201681
0.5337655522329882 0.632064742891693 0.4901347798983343
0.5154318833077121 0.6977775113376025 0.4580211465861273
0.8235910910741497 0.23805561112176293 0.31419036363056946
0.3986728426163716 0.40899396198429555 0.6917827058743176
0.6546711384947235 0.41805732203009477 0.2223153796793038
0.3108584452026136 0.4850985303515211 0.6417119912749584
0.4617074033417125 0.4847264304397643 0.4249652276719386
0.08538551028059076 0.2128371019939913 0.49469056043173526
0.3272474422460674 0.5538926698576798 0.6017044556362449
0.28920447849768993 0.15487031865770384 0.5828843795746279
0.37867384756328437 0.1740401115179314 0.3805713193542168
0.41602801356204516 0.5435461848373342 0.4956278532947343
0.4944926568166676 0.39881698930229004 0.1517921974397782
0.6022529544569799 0.34525585963593924 0.7456599706352689
0.5460365066521403 0.6328555378570925 0.4427861425248936
0.16475915272226868 0.4758364797293772 0.5207183145902405
0.33858480559772436 0.5410039358882587 0.35384344839300197
0.40823435706405353 0.35920178067836667 0.24146755867550926
0.14887054698515406 0.27685846819630305 0.6312026624238977
0.3200995336383414 0.3281190735221199 0.2785994270181897
0.23548292479663976 0.386550832269425 0.48992468493690494
0.2269288896064242 0.07769356962675197 0.562992108780703
0.3197977907026025 0.4730668543663044 0.5269638890013907
0.4842539371305145 0.49639495413105017 0.5543430262539595
0.3040669781754491 0.6558356090530061 0.4969487102048296
0.31167267842477075 0.30932256120790846 0.6991479459288589
0.6056462963117093 0.2302480267280989 0.5716836010463401
0.12766880076355722 0.24868249703973133 0.4235047049191285
0.40293978710713446 0.3051495436505287 0.283298023726145
0.3305036998427848 0.5037860663069466 0.3002849073456448
0.6365855830725567 0.20259565300302965 0.5716075040890755
0.4081186570499022 0.656039153289964 0.5947745608015363
0.6639421367346933 0.12113812303142213 0.46575345351739833
0.2487887640699955 0.42325666175892646 0.3133748642360784
0.4756162782919386 0.5656536381979185 0.5669404421065238
0.441288826914349 0.312405392790251 0.46170953649038043
0.4972530813274478 0.6855206254999375 0.4739739507777137
0.3642882727979437 0.1672318184673081 0.47371738733284846
0.49925408380954506 0.5634999071951954 0.5614900485410518
0.4938129192335287 0.1318015028497685 0.6519426355953378
0.4829026217414993 0.3996940668779509 0.36767614197447446
0.6702450582011308 0.47520299964216844 0.8004209111365984
0.4744153279018593 0.5965200215694989 0.6890194254414955
0.5450393537334857 0.3107128800080021 0.6738046906890397
0.49930698167593723 0.3675807745777176 0.3684852260958073
0.7505198776985573 0.48892857504419684 0.21062922805541442
0.5030761234793546 0.4720046623954341 0.6690729765402633
0.5043889472294206 0.6635916461641008 0.3612771743022233
0.19390475161781526 0.3010543901686637 0.4304793870830017
0.5830461330902779 0.13481254507116283 0.586559247813499
0.6054149525577326 0.42557926497953197 0.31214314585828645
0.3264431695796032 0.38887639692643367 0.6735148075674945
0.7092055185597821 0.23214023686955518 0.44857427700898517
0.36692708849034783 0.6017699659859403 0.6369905612592492
0.5523000079532506 0.3523778820537286 0.7321214088869507
0.2963925669741435 0.27242248618182524 0.5835479523576379
0.495864793706284 0.5541490556867038 0.32945440876113824
0.515810890892979 0.4286300157721742 0.38431593962010185
0.47711548260954795 0.27972663517983076 0.4311347016086787
0.15906278407807325 0.12872317060312052 0.5667383821049129
0.6952254565872305 0.18144011503732774 0.491196197808707
0.33935413190777425 0.3467485572346108 0.6221337312198294
0.5701997174139704 0.387462835098628 0.26288686144122525
0.33552280697418313 0.5717353734262132 0.39915699877967437
0.6181891401366845 0.5260025511740571 0.7475143503611058
0.6384060575170095 0.2207290767737067 0.36212581927469834
0.5641682351587481 0.277396978324182 0.6036768074521434
0.5587435870973979 0.6466309863804932 0.2650924633038919
0.3767797663004903 0.6379098727165349 0.6207258179274909
0.3425774127494855 0.3311534994845188 0.37855214729912867
0.4783702875295605 0.3573546075833965 0.413533246075489
0.29115432761749954 0.3345136869684007 0.4402357760042999
0.4880346151707514 0.5944981413124745 0.5207056704526288
0.4223068214798135 0.48937820690853 0.6849108087667903
0.7206618458364954 0.2424584018353669 0.5580647921092186
0.42922079771456917 0.577077664011537 0.5738696264778672
0.5627859126161351 0.3425437571854225 0.5524763154164489
0.4142028120742127 0.6463371781247131 0.5230579091401374
0.6360871895047888 0.2265864814358962 0.581583844730491
0.49391719555951236 0.6238553879479155 0.3517027871024805
0.5568174576059758 0.367051679847999 0.44524983251494427
0.41702176188397994 0.47004630178382467 0.5335886116836227
0.4801940821592442 0.43485833155098474 0.38093853043390674
0.6117903553559926 0.22712983819009752 0.3901335583338453
0.09987175981505436 0.30138007958866664 0.32012911986520903
0.5372618761042044 0.07688129193742149 0.6201238092570692
0.3390980837247059 0.32916367449041306 0.34965310732843724
0.2330424761032061 0.3350094479528579 0.6287102584590315
0.7028767953148968 0.21445018444444938 0.5354920274502335
0.3423596311080626 0.39338534915594053 0.4177149490310206
0.7666626604974024 0.2453141550543048 0.5070524655923436
0.5092977004076328 0.4635692112785747 0.4032714398471153
0.17055343869361553 0.5656772452776541 0.6505528426359549
0.5742357120710383 0.5927927478645877 0.7089942506715876
0.3914612314716713 0.23787519563277018 0.44934572767483955
0.15714140976719387 0.35333489379225475 0.23925406433862823
0.29572723561844755 0.6166532590271376 0.4863637297550369
0.5683893160738626 0.7153088209234967 0.37865605784199363
0.6199215733981898 0.47757466704071083 0.7590655561513693
0.17307824260164686 0.24118724218937543 0.5286861752984983
0.4464664025476199 0.37833340195987386 0.6336741464080922
0.5460894607928585 0.5531186727785762 0.208385233033869
0.575982157639705 0.471940101674989 0.7903005363579162
0.4541350737676786 0.5157624105611738 0.5391643703787278
0.31628300885247496 0.3107186713175892 0.587017116832293
0.6209816972875816 0.21417668418604613 0.24904534685916024
0.48753141014811474 0.3992064639121836 0.2308648566491175
0.36688488274588604 0.20109241803682415 0.49927034533117154
0.48292445617996754 0.5350300504056453 0.3604197927406446
0.3196246908759831 0.3632647448061456 0.5138178195736951
0.4813267155176213 0.6457789086741352 0.2811592898312873
0.3237191545577121 0.18183615967477584 0.5548726802097923
0.2746075936384104 0.40711151543839147 0.7172038447812504
0.5346228634516593 0.3327109530052035 0.22839582059810168
0.1269063961955991 0.23801624723076156 0.46806758569337586
0.39843480221760696 0.38277055518376046 0.30144996878435004
0.4855093047937865 0.41162712914123256 0.5801927996673557
0.3942903106601093 0.3811206974612947 0.45382297987311027
0.5389467856974457 0.37000449221061754 0.43182053088760164
0.503524348485539 0.6466603897158016 0.6301977717854249
0.506268340893142 0.3660580229718439 0.506177267930884
0.6550748223719192 0.25385261632481393 0.24469216196388036
0.428406508218086 0.22499767432279438 0.6012762924272613
0.3814625780600169 0.20041215288187947 0.2811231757826095
0.367405420260915 0.1990902548967541 0.733847314326646
0.4170864210844954 0.1057836169218902 0.43150814506996754
0.28284981278854215 0.16993958427758138 0.5473882476157454
0.2734692765731125 0.11451187742524412 0.6855564300398227
0.28247221206142387 0.4000113274590703 0.35689452979730907
0.4103219657337865 0.35809027481223804 0.293934166770732
0.4489106216208921 0.2760696991066378 0.6850354141930232
0.3624529982057664 0.22836679711449345 0.27113773276897163
0.09279914625544826 0.49252005880059296 0.5897037234960094
0.28228695698039946 0.2056843326913615 0.6515932845798459
0.34626073620583053 0.37572661339322544 0.6063402572307317
0.3738189489150055 0.5221296957879157 0.4562382774599901
0.3648295192649219 0.30864805908799936 0.7160806655096328
0.4825673955818206 0.48709398981251245 0.35052956588651263
0.6057381922859841 0.199036808355684 0.5705988219678919
0.6076984802932573 0.3514829936539049 0.27639566813969785
0.1559280790254058 0.18800381173021333 0.46975125549287366
0.6925605296075859 0.28755643738080855 0.2692978999563925
0.20883196677041585 0.45163715491886935 0.27876379025570547
0.37211074175082126 0.47207478020556665 0.23832297747863776
0.5845521184641641 0.7435126689742854 0.4946189403608858
0.3755946852703287 0.4385590578426295 0.52518619007895
0.5487891090316136 0.3034409874096663 0.645940584812587
0.1587419078715116 0.39295437223065954 0.5751020412504427
0.2841459793381273 0.28224041107854875 0.6759160189871601
0.5526324203966317 0.33959694858995365 0.5924875440578029
0.4122406951513462 0.2528481688466581 0.34247746954659986
0.48416626173068583 0.6222074224496598 0.43931457232280424
0.5171029494167699 0.6479503942266953 0.6916222396338738
0.3513458531215671 0.24506990337681356 0.5448783353012183
0.37883535487875825 0.12193018416915541 0.39786947033912246
0.32037038196913437 0.031650267849753395 0.4783785967855013
0.5241759568966576 0.4384840723033024 0.3029059825567935
0.3555976598186497 0.5082002807087181 0.49826626187756173
0.3457260175606624 0.20214635175036144 0.1898422236160623
0.27644770782261935 0.47273929558353633 0.3861919216528125
0.505249381673182 0.5022048280906849 0.6507990709491451
0.2853118708231403 0.24629522055002878 0.5765948373291847
0.5138923865727231 0.6551636091896852 0.4561600280097579
0.35095778536982225 0.21213716896212742 0.6415313366200803
0.5346354689006719 0.48414545429866607 0.6155641257227192
0.5351899398342482 0.5431495493194636 0.33747373937476716
0.5104314029782029 0.27222013074000306 0.46447919526633424
0.54939976987965 0.7289481418524266 0.3447982649544843
0.5202046777144311 0.2818501468695192 0.5562316418728458
0.5893535846399544 0.28938456689216296 0.4411666905241672
0.19344273940177334 0.38457594107456805 0.459454640076755
0.584591932549773 0.21010765649964613 0.333809352229104
0.12998251967495356 0.4323350189125911 0.37304727315184716
0.24631725194863796 0.164733843344173 0.6321997590682263
0.3562147640770073 0.10808236686258409 0.5243974737464653
0.508332764540584 0.4235297751313388 0.36846935673588965
0.5160224823585476 0.3175415428258679 0.7585645176902817
0.5723775338281997 0.3101275975620392 0.2902153342147131
0.5208620743901683 0.6883798395899213 0.5698136614693782
0.5090468857368777 0.5800355551320725 0.6739567157805911
0.5373952462567037 0.43687971940765713 0.6934704432524379
0.7296368129848101 0.32422379633423304 0.2560932559896747
0.18906527213484645 0.6119628783707709 0.6020032793413252
0.48549180347841636 0.3882513017137913 0.39687330222117184
0.31422528184982096 0.5397916321529191 0.4589240013202182
0.7119503832194373 0.2569714485004184 0.5753374086187247
0.2167788582579668 0.5876185768280368 0.40485643437463403
0.3110653096248024 0.489272678478794 0.1778140647762174
0.5209425466762755 0.3708150042929714 0.5280479963050728
0.3472097464386358 0.25544539429504054 0.4467030642253986
0.38331304672020045 0.6009608818646075 0.4615367549654172
0.6042778453904426 0.3129333024618009 0.41874581027091873
0.21314533758008675 0.18585392145023624 0.5705317640742328
0.4482137766426647 0.27529341588304246 0.7660559529207638
0.3828818728347786 0.4384088053923455 0.4599910645374285
0.44704985475905995 0.14216637550611796 0.499706140745612
0.1822156174546506 0.3499159260163463 0.34833080135444877
0.5143437066668347 0.29727990142499483 0.5221796427693408
0.3332596224074891 0.2239709914515979 0.23500799762279242
0.44987915904480175 0.13026518561419567 0.30423992324767196
0.24989804358310375 0.4234738384513454 0.2771153323570976
0.3048456460236065 0.5885590052261347 0.4955905772691543
0.34251416040711874 0.562873658358871 0.48615786068498834
0.4083137038636417 0.4343781145904983 0.4251229857104461
0.5376174735698765 0.2513565052887259 0.3708750419644683
0.6110269941244934 0.3431777929816 0.3880156600081703
0.2909506708318898 0.5176391171258311 0.4276487673848908
0.24475682116439595 0.5382002082836607 0.5512196675122616
0.18479652686565318 0.3049680009164443 0.5488778149550361
0.6670486764872232 0.2901401798524081 0.3577036420558049
0.5350794451952472 0.2987956521530059 0.4216753180283036
0.4802689270127565 0.3894230809001567 0.7838278352500903
0.13540421333419156 0.3351128361996352 0.46327892368531176
0.4294855684181596 0.5350733816366261 0.43628998557458304
0.5231244148419731 0.5677075104092449 0.3088652226460786
0.5229447871935436 0.40652856969588497 0.3129320134280221
0.3178701136672168 0.2879394140646277 0.5153146761967687
0.7056657790460961 0.25476343739317203 0.3717281185401119
0.7054038783331291 0.2280985374026942 0.407423064175427
0.530399531563507 0.4810417001252706 0.7965909649239932
0.524450688155941 0.32799881704613937 0.3978313374490012
0.692995839655965 0.8161883160442003 0.7585835102752895
0.1490696455503619 0.23537784656151126 0.38505700214994376
0.3812908288172203 0.2424016069719028 0.39139090966710705
0.35357645485353667 0.30394854270148475 0.23743117009815973
0.45448538144671163 0.5750168137837929 0.6430698063486207
0.4586870477193736 0.3350541948348509 0.506370559689083
0.49087725647174313 0.5713458988163196 0.5928292206620934
0.29787196272901884 0.37187263804343984 0.7263825531266637
